# .PCD v0.7 - Point Cloud Data file format
VERSION 0.7
FIELDS x y z
SIZE 4 4 4 
TYPE F F F 
COUNT 1 1 1 
WIDTH 1533
HEIGHT 1
VIEWPOINT 0 0 0 1 0 0 0
POINTS 1533
DATA ascii
0.10296053 -0.2369671 0.54605138 
0.10771533 -0.25499359 0.5875904 
0.10231618 -0.24933612 0.57455373 
0.10876286 -0.27307785 0.62926257 
0.094992451 -0.24595684 0.56676674 
0.099090919 -0.2648451 0.6102916 
0.095084488 -0.26260817 0.60513693 
0.088107139 -0.2517288 0.58006728 
0.092188396 -0.27279603 0.62861317 
0.08680442 -0.26637769 0.61382318 
0.08258906 -0.26318976 0.60647714 
0.080655813 -0.26731017 0.61597192 
0.07864815 -0.27151701 0.6256659 
0.075726181 -0.27279603 0.62861317 
0.069862239 -0.26311135 0.60629648 
0.065569498 -0.25870353 0.59613937 
0.06554012 -0.27151701 0.6256659 
0.060823519 -0.26523921 0.61119974 
0.057287917 -0.2637001 0.60765314 
0.057489179 -0.28019279 0.64565784 
0.054107461 -0.28019279 0.64565784 
0.050840374 -0.28082597 0.64711684 
0.05001666 -0.29601005 0.68210602 
0.044387564 -0.28290313 0.65190333 
0.040580601 -0.28019279 0.64565784 
0.038146127 -0.28732771 0.66209906 
0.035291284 -0.29240668 0.67380267 
0.03192094 -0.29386842 0.67717105 
0.027114864 -0.28082597 0.64711684 
0.024926716 -0.29504403 0.67988002 
0.020298965 -0.28031245 0.64593357 
0.016963681 -0.28110585 0.64776182 
0.014290473 -0.29601005 0.68210602 
0.011196943 -0.30924165 0.71259606 
0.0075420551 -0.31244928 0.71998751 
0.0035726184 -0.29601005 0.68210602 
0 -0.31450325 0.7247206 
-0.0037958177 -0.31450325 0.7247206 
-0.0075115347 -0.31118488 0.71707392 
-0.011277014 -0.31145307 0.71769196 
-0.01605333 -0.33252549 0.76624984 
-0.018639473 -0.30887547 0.7117523 
-0.023113329 -0.31917658 0.73548949 
-0.027904341 -0.33028856 0.76109517 
-0.032159276 -0.33307043 0.76750553 
-0.035580315 -0.32755712 0.75480103 
-0.040413521 -0.33484703 0.77159947 
-0.041697312 -0.31407627 0.7237367 
-0.046298794 -0.31967467 0.73663723 
-0.050538369 -0.32210514 0.74223787 
-0.055776466 -0.33009788 0.76065582 
-0.062471863 -0.34507459 0.79516715 
-0.064661629 -0.33484703 0.77159947 
-0.068104222 -0.33192879 0.76487482 
-0.07235837 -0.33307043 0.76750553 
-0.076598257 -0.3340297 0.76971602 
-0.080398187 -0.33307043 0.76750553 
-0.088781625 -0.35028666 0.80717748 
-0.092890047 -0.34983742 0.80614233 
-0.093889154 -0.33822632 0.77938646 
-0.10066316 -0.34751943 0.80080086 
-0.10340733 -0.34271342 0.7897262 
-0.11386997 -0.36287385 0.83618259 
-0.11021771 -0.33822632 0.77938646 
-0.11798702 -0.3491371 0.80452853 
-0.11933582 -0.3409515 0.78566617 
-0.12421359 -0.34305808 0.79052043 
-0.12988569 -0.34715179 0.7999537 
-0.13722336 -0.35530218 0.81873494 
-0.13999659 -0.35149837 0.80996966 
-0.14340225 -0.3494595 0.80527145 
-0.15083855 -0.35707882 0.82282889 
-0.1464541 -0.337069 0.77671957 
-0.16282557 -0.36462018 0.84020668 
-0.15717915 -0.34271342 0.7897262 
-0.16668895 -0.3541294 0.81603247 
-0.17593597 -0.36443028 0.83976912 
-0.18295006 -0.3697162 0.85194963 
-0.17492121 -0.34507459 0.79516715 
-0.18737139 -0.3610394 0.83195543 
-0.18694866 -0.35203794 0.81121302 
-0.19119748 -0.35203794 0.81121302 
-0.19660747 -0.3541294 0.81603247 
-0.19870174 -0.35028666 0.80717748 
-0.20998989 -0.36247402 0.83526129 
-0.20407474 -0.34507459 0.79516715 
-0.21419126 -0.35493723 0.81789392 
-0.22336034 -0.36287385 0.83618259 
-0.22658865 -0.3610394 0.83195543 
-0.23531686 -0.36787218 0.84770042 
-0.22943699 -0.35203794 0.81121302 
-0.24796773 -0.37355304 0.86079103 
-0.23793465 -0.35203794 0.81121302 
-0.24629563 -0.35801533 0.82498693 
-0.24326928 -0.34751943 0.80080086 
-0.25811255 -0.36247402 0.83526129 
-0.25772905 -0.35590321 0.82011992 
-0.26289004 -0.35707882 0.82282889 
-0.27197877 -0.36346543 0.83754581 
-0.28682408 -0.37722012 0.86924118 
-0.26993364 -0.3494595 0.80527145 
-0.28467494 -0.36287385 0.83618259 
-0.28905457 -0.36287385 0.83618259 
-0.30099571 -0.37222481 0.85773033 
-0.29781377 -0.36287385 0.83618259 
-0.32001716 -0.3842766 0.88550168 
-0.30707282 -0.36346543 0.83754581 
-0.32514009 -0.37943026 0.8743341 
-0.32779896 -0.37722012 0.86924118 
-0.30968943 -0.35149837 0.80996966 
-0.33690447 -0.37722012 0.86924118 
-0.34093186 -0.37663972 0.86790377 
-0.33201984 -0.36196804 0.8340953 
-0.28425726 -0.30587265 0.70483279 
-0.32485369 -0.34507459 0.79516715 
-0.32901847 -0.34507459 0.79516715 
0 0 0 
0 0 0 
0 0 0 
0 0 0 
0 0 0 
0 0 0 
0 0 0 
0 0 0 
0 0 0 
0 0 0 
0 0 0 
0 0 0 
0 0 0 
0 0 0 
0 0 0 
0 0 0 
0 0 0 
0 0 0 
0 0 0 
0 0 0 
0 0 0 
0 0 0 
0 0 0 
0 0 0 
0 0 0 
0 0 0 
0 0 0 
0 0 0 
0 0 0 
0 0 0 
0 0 0 
0 0 0 
0 0 0 
0 0 0 
0 0 0 
0 0 0 
0 0 0 
0 0 0 
0 0 0 
0 0 0 
0.15479881 -0.10817012 0.24629273 
0.1839712 -0.12963547 0.29516721 
0.16785941 -0.11928468 0.27159947 
0.19480626 -0.13961692 0.31789398 
0.18327993 -0.13248843 0.3016631 
0.1777873 -0.12963547 0.29516721 
0.19350758 -0.14233579 0.32408458 
0.17469534 -0.12963547 0.29516721 
0.18256208 -0.1366827 0.31121305 
0.18093206 -0.1366827 0.31121305 
0.17638062 -0.13445568 0.30614236 
0.16540514 -0.1272458 0.28972617 
0.19219519 -0.14922436 0.33976918 
0.19169164 -0.15022436 0.34204608 
0.18429793 -0.14579263 0.33195546 
0.16767231 -0.13390385 0.30488586 
0.18071784 -0.14570977 0.33176681 
0.18097387 -0.14733288 0.33546245 
0.18032989 -0.14824788 0.33754584 
0.17124508 -0.14217319 0.32371435 
0.18167825 -0.1523435 0.34687114 
0.17839435 -0.15110084 0.34404173 
0.17313828 -0.14814535 0.33731237 
0.17350183 -0.14998689 0.34150541 
0.1705635 -0.1489827 0.33921894 
0.17000452 -0.15005755 0.34166628 
0.17224945 -0.15365651 0.34986076 
0.1653755 -0.14911084 0.33951071 
0.16245839 -0.14807281 0.33714721 
0.17317064 -0.15957095 0.36332735 
0.17309383 -0.16127241 0.36720139 
0.16449611 -0.15498391 0.3528831 
0.16326299 -0.15557007 0.35421774 
0.16235854 -0.1564865 0.35630435 
0.16315962 -0.1590872 0.36222589 
0.16040777 -0.15824407 0.36030617 
0.16310994 -0.16282539 0.37073737 
0.16353858 -0.16522019 0.3761901 
0.15823168 -0.16180821 0.36842138 
0.15881047 -0.16440503 0.37433407 
0.15598096 -0.16349429 0.37226039 
0.15572017 -0.16528703 0.3763423 
0.15374903 -0.16528703 0.3763423 
0.1541872 -0.16791078 0.38231632 
0.14739841 -0.16262983 0.3702921 
0.15090567 -0.1687195 0.38415769 
0.15242751 -0.17272396 0.39327547 
0.14519408 -0.16678117 0.37974432 
0.14756536 -0.17185925 0.39130658 
0.1544567 -0.18241872 0.41534948 
0.15102503 -0.18091387 0.41192305 
0.14805165 -0.17992236 0.4096655 
0.14199708 -0.17510216 0.39869037 
0.14092229 -0.17637047 0.40157822 
0.1391374 -0.17677504 0.40249935 
0.145206 -0.18732347 0.4265171 
0.13644508 -0.17877175 0.40704566 
0.13787636 -0.18351445 0.41784433 
0.13303192 -0.17992236 0.4096655 
0.13878119 -0.19077513 0.43437618 
0.13538982 -0.18921508 0.4308241 
0.13351212 -0.18975346 0.43204993 
0.13704403 -0.19813131 0.45112547 
0.14005347 -0.20603453 0.46912032 
0.13112906 -0.19635044 0.44707063 
0.1339685 -0.20424952 0.46505603 
0.13702524 -0.21277851 0.48447573 
0.13208944 -0.20898408 0.47583616 
0.12655559 -0.20407932 0.46466851 
0.1290855 -0.21224049 0.48325071 
0.12871794 -0.21586891 0.49151224 
0.130244 -0.22288594 0.50748932 
0.12750135 -0.2227381 0.50715274 
0.12139923 -0.21659033 0.49315485 
0.12046547 -0.21959667 0.5 
0.11784666 -0.21959667 0.5 
0.11674029 -0.22247902 0.50656283 
0.11870655 -0.23148733 0.52707386 
0.11802987 -0.23564792 0.53654712 
0.11521964 -0.23564792 0.53654712 
0.10957127 -0.22969824 0.5230003 
0.10863039 -0.23356497 0.53180444 
0.10817994 -0.23871742 0.54353607 
0.10393831 -0.23555641 0.53633875 
0.1037842 -0.24174066 0.55041969 
0.10256756 -0.24573269 0.55950916 
0.10231618 -0.25234017 0.57455373 
0.09859699 -0.25053632 0.57044655 
0.098134167 -0.2571528 0.58551162 
0.096961953 -0.26227728 0.59717953 
0.093099996 -0.26022521 0.59250718 
0.08868663 -0.25643727 0.58388245 
0.087832019 -0.26303637 0.59890795 
0.082187459 -0.25524822 0.58117509 
0.083882049 -0.27053076 0.61597192 
0.079237074 -0.2657721 0.60513693 
0.076586105 -0.26758373 0.60926181 
0.075011089 -0.27347562 0.62267709 
0.071769558 -0.27355117 0.62284905 
0.070994884 -0.28348413 0.64546543 
0.066453591 -0.27861819 0.63438618 
0.060335569 -0.26628137 0.60629648 
0.057287917 -0.2668772 0.60765314 
0.056281652 -0.27761242 0.63209617 
0.053889386 -0.28242573 0.64305556 
0.051364291 -0.28713822 0.65378547 
0.047451016 -0.2842094 0.64711684 
0.045585789 -0.2940405 0.66950125 
0.042932417 -0.30000263 0.68307644 
0.038146127 -0.29078948 0.66209906 
0.03546771 -0.29740903 0.67717105 
0.031026291 -0.28907353 0.65819198 
0.028536487 -0.29911041 0.68104494 
0.026082186 -0.31244022 0.71139562 
0.021934804 -0.30655152 0.69798762 
0.018458264 -0.30955786 0.70483279 
0.014766611 -0.30955786 0.70483279 
0.010954444 -0.30618933 0.69716299 
0.0079726689 -0.33426791 0.76109517 
0.0036916528 -0.30955786 0.70483279 
0 -0.31550586 0.7183758 
-0.0036221961 -0.30373368 0.69157171 
-0.0076553486 -0.32096374 0.73080283 
-0.011387454 -0.31829247 0.7247206 
-0.015339914 -0.32157621 0.7321974 
-0.019766839 -0.3315036 0.75480103 
-0.023174981 -0.32388371 0.73745131 
-0.027037477 -0.32388371 0.73745131 
-0.031198246 -0.32701012 0.74456984 
-0.036466241 -0.33975783 0.77359515 
-0.039533678 -0.3315036 0.75480103 
-0.043334499 -0.33034068 0.75215322 
-0.046771683 -0.3268306 0.74416113 
-0.052173324 -0.33653182 0.76624984 
-0.054897446 -0.32881007 0.74866813 
-0.06159449 -0.34432739 0.78399956 
-0.061799943 -0.32388371 0.73745131 
-0.067470908 -0.33280405 0.75776207 
-0.077108853 -0.35921356 0.81789392 
-0.078019686 -0.34432739 0.78399956 
-0.081493892 -0.34167722 0.77796543 
-0.082185939 -0.32817024 0.74721134 
-0.092337579 -0.35194662 0.80134779 
-0.095073476 -0.34661913 0.78921765 
-0.10066316 -0.35170642 0.80080086 
-0.10265748 -0.34432739 0.78399956 
-0.10828456 -0.34923211 0.79516715 
-0.11387827 -0.35366985 0.80527145 
-0.12218143 -0.36590484 0.83312929 
-0.12150596 -0.35133433 0.7999537 
-0.12641467 -0.35334358 0.80452853 
-0.12756588 -0.34505934 0.78566617 
-0.13243318 -0.34703064 0.79015458 
-0.14331223 -0.36415836 0.82915276 
-0.14340225 -0.35366985 0.80527145 
-0.15043335 -0.36041015 0.82061845 
-0.15386672 -0.35839602 0.81603247 
-0.15103908 -0.34230134 0.77938646 
-0.15512122 -0.34230134 0.77938646 
-0.16807725 -0.36138096 0.82282889 
-0.17593597 -0.368821 0.83976912 
-0.17311327 -0.35405234 0.80614233 
-0.18100625 -0.36138096 0.82282889 
-0.19009343 -0.3706975 0.84404171 
-0.19070436 -0.36343682 0.82750988 
-0.1923334 -0.35839602 0.81603247 
-0.19937274 -0.36343682 0.82750988 
-0.19713201 -0.35170642 0.80080086 
-0.21112318 -0.368821 0.83976912 
-0.21314237 -0.36474949 0.8304987 
-0.21873945 -0.3668412 0.83526129 
-0.22545967 -0.3706975 0.84404171 
-0.23098481 -0.3724784 0.84809661 
-0.22779906 -0.36041015 0.82061845 
-0.23209715 -0.36041015 0.82061845 
-0.25001669 -0.38117754 0.86790377 
-0.24069333 -0.36041015 0.82061845 
-0.24362232 -0.35839602 0.81603247 
-0.249961 -0.36138096 0.82282889 
-0.25811255 -0.3668412 0.83526129 
-0.26524666 -0.3706975 0.84404171 
-0.25828907 -0.35505629 0.80842823 
-0.26908761 -0.36393431 0.82864261 
-0.27850899 -0.3706975 0.84404171 
-0.27839002 -0.36474949 0.8304987 
-0.28273988 -0.36474949 0.8304987 
-0.32374954 -0.41132602 0.93654889 
-0.30456579 -0.38117754 0.86790377 
-0.31348184 -0.38656673 0.8801744 
-0.3180919 -0.38656673 0.8801744 
-0.30707282 -0.36784455 0.83754581 
-0.31896561 -0.37670946 0.85773033 
-0.32571861 -0.37934211 0.86372465 
-0.34372872 -0.39483345 0.89899689 
-0.35690069 -0.40442377 0.92083311 
-0.32623833 -0.36474949 0.8304987 
-0.3480373 -0.3840017 0.8743341 
-0.3266587 -0.35573328 0.80996966 
-0.33273256 -0.35770226 0.81445283 
-0.32901847 -0.34923211 0.79516715 
-0.29533222 -0.30955786 0.70483279 
0 0 0 
0 0 0 
0 0 0 
0 0 0 
0 0 0 
0 0 0 
0 0 0 
0 0 0 
0 0 0 
0 0 0 
0 0 0 
0 0 0 
0 0 0 
0 0 0 
0 0 0 
0 0 0 
0 0 0 
0 0 0 
0 0 0 
0 0 0 
0 0 0 
0 0 0 
0 0 0 
0 0 0 
0 0 0 
0 0 0 
0 0 0 
0 0 0 
0 0 0 
0 0 0 
0 0 0 
0 0 0 
0 0 0 
0 0 0 
0 0 0 
0 0 0 
0 0 0 
0 0 0 
0 0 0 
0.1719588 -0.12159166 0.27359515 
0.19026895 -0.13566929 0.30527145 
0.1935056 -0.13914645 0.31309545 
0.20523022 -0.14883877 0.33490428 
0.17012577 -0.12444365 0.28001246 
0.16962996 -0.12515993 0.28162417 
0.18670069 -0.13896379 0.31268445 
0.17117409 -0.12853464 0.28921768 
0.18648122 -0.14127903 0.31789398 
0.19391093 -0.1482313 0.3335374 
0.1700574 -0.13117875 0.29516721 
0.18697593 -0.14555255 0.32750988 
0.17643993 -0.13862251 0.3119165 
0.18354517 -0.14555255 0.32750988 
0.16686873 -0.13357639 0.30056217 
0.17335096 -0.14008692 0.31521159 
0.16854388 -0.13751189 0.30941752 
0.17149611 -0.14127903 0.31789398 
0.19581921 -0.16289799 0.36653912 
0.17542794 -0.14737982 0.33162147 
0.17478132 -0.14830494 0.3337031 
0.17698367 -0.15169057 0.34132117 
0.17200874 -0.14893098 0.33511177 
0.1716008 -0.15010951 0.33776361 
0.17542264 -0.15505116 0.34888285 
0.17453247 -0.15588821 0.35076633 
0.17439456 -0.1574221 0.35421774 
0.16330563 -0.14899744 0.33526132 
0.17040481 -0.15716456 0.35363826 
0.1679578 -0.15660997 0.35239035 
0.16516754 -0.15571943 0.35038656 
0.16545571 -0.15774384 0.3549417 
0.16764486 -0.1616472 0.36372471 
0.17138907 -0.16715696 0.37612233 
0.16383475 -0.1616472 0.36372471 
0.1576972 -0.1574221 0.35421774 
0.16143566 -0.16307253 0.36693186 
0.15706795 -0.16057213 0.36130565 
0.1649902 -0.17072806 0.38415769 
0.15619685 -0.16362432 0.36817345 
0.15142515 -0.16060856 0.36138764 
0.15666905 -0.16827388 0.3786355 
0.15749098 -0.17132537 0.38550171 
0.15270273 -0.16827388 0.3786355 
0.15890771 -0.17741567 0.39920557 
0.14704673 -0.16636223 0.37433407 
0.14905271 -0.17091052 0.38456824 
0.14756407 -0.17152143 0.38594285 
0.14862242 -0.17515093 0.39410967 
0.15004462 -0.17931752 0.40348494 
0.1425474 -0.1727913 0.3888002 
0.14294922 -0.17578965 0.39554685 
0.14135528 -0.17638585 0.39688835 
0.14124553 -0.1788795 0.40249935 
0.14161462 -0.18206429 0.4096655 
0.14170325 -0.18498097 0.41622838 
0.12937123 -0.17152143 0.38594285 
0.13291891 -0.17902218 0.40282041 
0.13686872 -0.18731524 0.42148075 
0.13572811 -0.1887994 0.42482024 
0.13414636 -0.18970914 0.42686728 
0.13600555 -0.19559836 0.44011873 
0.13370037 -0.19559836 0.44011873 
0.1415192 -0.21066923 0.4740299 
0.13291974 -0.2014012 0.45317578 
0.13551114 -0.20906095 0.47041109 
0.13680017 -0.21495794 0.48367998 
0.13879718 -0.22221091 0.5 
0.13617836 -0.22221091 0.5 
0.13602392 -0.22631103 0.50922573 
0.13532706 -0.22965465 0.51674926 
0.12832192 -0.22221091 0.5 
0.12942453 -0.22878942 0.5148024 
0.12848614 -0.23196317 0.52194369 
0.12046547 -0.22221091 0.5 
0.11946001 -0.22525303 0.50684512 
0.11841674 -0.22836053 0.51383734 
0.11744016 -0.23174419 0.52145094 
0.10999022 -0.22221091 0.5 
0.1073714 -0.22221091 0.5 
0.10969014 -0.23268493 0.52356774 
0.11035323 -0.24009386 0.54023868 
0.10654698 -0.23791297 0.53533143 
0.10775378 -0.24711062 0.55602717 
0.10677324 -0.25166368 0.56627208 
0.10771533 -0.26113799 0.5875904 
0.10417773 -0.25998998 0.58500719 
0.097875468 -0.25166368 0.56627208 
0.094287902 -0.25001532 0.56256312 
0.094706319 -0.25922561 0.5832873 
0.093458094 -0.26433599 0.59478623 
0.087970369 -0.25739437 0.57916683 
0.086243615 -0.26135424 0.58807695 
0.084806584 -0.26651791 0.5996958 
0.080390774 -0.2623575 0.59033442 
0.079237074 -0.26893607 0.60513693 
0.074820086 -0.2645255 0.5952127 
0.074275628 -0.27401802 0.6165719 
0.071421154 -0.27546397 0.61982548 
0.067875184 -0.27425361 0.61710203 
0.063389659 -0.26893607 0.60513693 
0.061681908 -0.27546397 0.61982548 
0.059860107 -0.28217959 0.63493639 
0.05691497 -0.28407839 0.63920891 
0.052432097 -0.27805957 0.6256659 
0.052076656 -0.29458624 0.66285276 
0.049461897 -0.29978049 0.6745404 
0.045469269 -0.29678044 0.66778994 
0.041368391 -0.29251489 0.65819198 
0.037048955 -0.28578794 0.64305556 
0.036607798 -0.31062344 0.69893831 
0.03080513 -0.29042977 0.65350026 
0.029005069 -0.30764124 0.69222802 
0.025355374 -0.30734956 0.69157171 
0.02171029 -0.30702585 0.69084334 
0.018046696 -0.30625862 0.68911695 
0.014391004 -0.30527535 0.68690449 
0.010669648 -0.30177927 0.67903793 
0.0073833056 -0.31324309 0.70483279 
0.0036537636 -0.31002811 0.69759876 
0 -0.31926188 0.7183758 
-0.0037260265 -0.31615975 0.71139562 
-0.007910422 -0.33560646 0.75515294 
-0.011600954 -0.32812026 0.73830813 
-0.015066279 -0.31959993 0.71913642 
-0.019383529 -0.32894513 0.74016422 
-0.02189344 -0.30961597 0.69667137 
-0.027298465 -0.33090308 0.74456984 
-0.030253991 -0.32088789 0.72203451 
-0.035416778 -0.33390826 0.75133181 
-0.03807921 -0.32310861 0.72703141 
-0.044010311 -0.33948639 0.76388323 
-0.046520472 -0.32894513 0.74016422 
-0.049419984 -0.32256696 0.72581261 
-0.054425936 -0.32986671 0.74223787 
-0.059264254 -0.33524489 0.7543394 
-0.061986808 -0.32873043 0.73968112 
-0.068104222 -0.33992708 0.76487482 
-0.070729539 -0.33341789 0.75022846 
-0.080326237 -0.35872731 0.80717748 
-0.08590968 -0.36447918 0.82011992 
-0.084868394 -0.34291565 0.77159947 
-0.090214878 -0.34794942 0.78292602 
-0.096534744 -0.35613644 0.80134779 
-0.10073191 -0.35613644 0.80134779 
-0.10251691 -0.34794942 0.78292602 
-0.11205149 -0.36568311 0.82282889 
-0.11244936 -0.35338965 0.79516715 
-0.11661414 -0.35338965 0.79516715 
-0.1230273 -0.35996819 0.80996966 
-0.12746499 -0.36052078 0.81121302 
-0.12910852 -0.35338965 0.79516715 
-0.13484231 -0.35755005 0.80452853 
-0.13918455 -0.3578802 0.80527145 
-0.14252457 -0.35568982 0.80034286 
-0.14576769 -0.35338965 0.79516715 
-0.15090838 -0.35568982 0.80034286 
-0.16274078 -0.37321174 0.83976912 
-0.16278537 -0.36348993 0.81789392 
-0.16706918 -0.36348993 0.81789392 
-0.17778376 -0.37713143 0.84858888 
-0.17451814 -0.3611747 0.81268442 
-0.18269347 -0.36909175 0.8304987 
-0.19299936 -0.3808448 0.85694444 
-0.18848832 -0.36348993 0.81789392 
-0.19893499 -0.37511057 0.84404171 
-0.19824494 -0.36568311 0.82282889 
-0.20444269 -0.36909175 0.8304987 
-0.20752567 -0.36685222 0.82545954 
-0.22249269 -0.38528341 0.8669318 
-0.2097149 -0.35589337 0.80080086 
-0.22890623 -0.3808448 0.85694444 
-0.23228845 -0.37903985 0.8528831 
-0.22841266 -0.36568311 0.82282889 
-0.23404627 -0.36776346 0.82750988 
-0.23966107 -0.36973915 0.83195543 
-0.24631037 -0.37321174 0.83976912 
-0.26102796 -0.38857317 0.8743341 
-0.25373775 -0.37120834 0.83526129 
-0.25709099 -0.36973915 0.83195543 
-0.2553924 -0.3611747 0.81268442 
-0.26812658 -0.37296721 0.83921891 
-0.26908761 -0.36826685 0.82864261 
-0.29150534 -0.39261469 0.88342804 
-0.28292975 -0.37511057 0.84404171 
-0.28513905 -0.37222365 0.83754581 
-0.3042618 -0.39116871 0.8801744 
-0.28874806 -0.36568311 0.82282889 
-0.31348184 -0.39116871 0.8801744 
-0.30503365 -0.37511057 0.84404171 
-0.29153538 -0.35338965 0.79516715 
-0.33277422 -0.39769667 0.89486307 
-0.32971954 -0.38857317 0.8743341 
-0.31833151 -0.37001333 0.83257234 
-0.33476636 -0.38385808 0.86372465 
-0.34145725 -0.38630974 0.86924118 
-0.3438141 -0.38385808 0.86372465 
-0.33373263 -0.36776346 0.82750988 
-0.33615449 -0.36568311 0.82282889 
-0.34924144 -0.37511057 0.84404171 
-0.31100535 -0.32986671 0.74223787 
-0.17379975 -0.18206429 0.4096655 
-0.30271554 -0.31324309 0.70483279 
0 0 0 
0 0 0 
0 0 0 
0 0 0 
0 0 0 
0 0 0 
0 0 0 
0 0 0 
0 0 0 
0 0 0 
0 0 0 
0 0 0 
0 0 0 
0 0 0 
0 0 0 
0 0 0 
0 0 0 
0 0 0 
0 0 0 
0 0 0 
0 0 0 
0 0 0 
0 0 0 
0 0 0 
0 0 0 
0 0 0 
0 0 0 
0 0 0 
0 0 0 
0 0 0 
0 0 0 
0 0 0 
0 0 0 
0 0 0 
0 0 0 
0 0 0 
0 0 0 
0.18551718 -0.13272204 0.29516721 
0.1969761 -0.14210413 0.31603253 
0.15930736 -0.11590281 0.2577621 
0.21287219 -0.15619719 0.3473748 
0.20508103 -0.1517776 0.33754584 
0.19540495 -0.14587398 0.32441649 
0.18415934 -0.13868485 0.30842823 
0.19773506 -0.15022609 0.33409536 
0.17314936 -0.13272204 0.29516721 
0.18701598 -0.14464249 0.32167771 
0.18533115 -0.14464249 0.32167771 
0.18622655 -0.14667471 0.32619727 
0.17317371 -0.13765702 0.30614236 
0.18354517 -0.14726493 0.32750988 
0.17923097 -0.14516012 0.32282892 
0.17079628 -0.13964623 0.31056631 
0.17169999 -0.14173499 0.31521159 
0.17471865 -0.1456271 0.32386744 
0.18292142 -0.1539588 0.34239674 
0.17307386 -0.14711271 0.32717139 
0.17136025 -0.14711271 0.32717139 
0.16696344 -0.14478593 0.32199672 
0.17729814 -0.15531674 0.34541672 
0.17794269 -0.15748841 0.3502464 
0.17179406 -0.15363035 0.34166628 
0.17344907 -0.15674312 0.34858894 
0.16777168 -0.15322547 0.34076583 
0.16655576 -0.15375061 0.34193373 
0.1722852 -0.16076824 0.35754061 
0.15821803 -0.14926387 0.33195546 
0.16408807 -0.15652172 0.34809655 
0.16333234 -0.15755142 0.35038656 
0.16674973 -0.16267566 0.36178261 
0.1626502 -0.16050017 0.35694441 
0.16140613 -0.16112456 0.35833302 
0.16421673 -0.16585882 0.36886179 
0.16304962 -0.16664053 0.37060028 
0.1603528 -0.16585882 0.36886179 
0.15042579 -0.15748841 0.3502464 
0.1596989 -0.16926107 0.37642822 
0.15684985 -0.16831943 0.37433407 
0.1567508 -0.17034242 0.37883309 
0.1547666 -0.17034242 0.37883309 
0.15463553 -0.17240852 0.38342801 
0.14810555 -0.16730075 0.37206855 
0.14615679 -0.16730075 0.37206855 
0.14765626 -0.17130117 0.38096529 
0.15432723 -0.18149298 0.40363139 
0.14554265 -0.17353933 0.38594285 
0.15043768 -0.18190239 0.40454191 
0.14557602 -0.17853852 0.39706081 
0.14321336 -0.17818642 0.39627776 
0.14370471 -0.18142714 0.40348494 
0.14462957 -0.18532006 0.41214263 
0.13623723 -0.17721154 0.39410967 
0.13946894 -0.18420622 0.4096655 
0.13452779 -0.18045637 0.401326 
0.13613461 -0.18551034 0.4125658 
0.13496393 -0.18688144 0.41561505 
0.1324271 -0.1863748 0.41448832 
0.13369979 -0.19130203 0.42544624 
0.13667469 -0.19887319 0.44228411 
0.13981983 -0.20695738 0.46026295 
0.13715741 -0.20657822 0.45941973 
0.13449311 -0.20618267 0.45854002 
0.13095766 -0.20441294 0.45460424 
0.12942997 -0.2057696 0.45762137 
0.1267118 -0.20524913 0.45646387 
0.13092579 -0.21615337 0.48071438 
0.13355955 -0.22482516 0.5 
0.12859273 -0.22079363 0.49103409 
0.13038996 -0.22844845 0.50805801 
0.12758598 -0.22819273 0.50748932 
0.12128304 -0.221535 0.49268284 
0.12218878 -0.2280414 0.50715274 
0.11953251 -0.2280414 0.50715274 
0.11522785 -0.22482516 0.5 
0.11260903 -0.22482516 0.5 
0.11163772 -0.22819273 0.50748932 
0.10403768 -0.21784467 0.48447573 
0.10969014 -0.2354224 0.52356774 
0.10733262 -0.2362693 0.52545118 
0.10868056 -0.24553218 0.54605138 
0.10636764 -0.24680158 0.5488745 
0.10409454 -0.24823645 0.55206555 
0.10457257 -0.25650147 0.57044655 
0.10313768 -0.26042256 0.57916683 
0.09859699 -0.25650147 0.57044655 
0.099381588 -0.26662207 0.59295428 
0.097800605 -0.27084449 0.60234469 
0.091651283 -0.26227531 0.5832873 
0.090706341 -0.26852196 0.59717953 
0.089780539 -0.27527344 0.61219448 
0.081459969 -0.25901243 0.57603079 
0.080390774 -0.26544407 0.59033442 
0.083314344 -0.28610137 0.63627523 
0.077343509 -0.27666405 0.61528713 
0.074572302 -0.27834913 0.61903465 
0.070641719 -0.27566317 0.61306119 
0.068174742 -0.27870473 0.61982548 
0.065227032 -0.27998695 0.62267709 
0.061965685 -0.27998695 0.62267709 
0.057177044 -0.27270263 0.60647714 
0.054421041 -0.27482617 0.61119974 
0.054589592 -0.29290718 0.65141106 
0.050389793 -0.28839749 0.64138168 
0.046162721 -0.28307632 0.62954766 
0.044992037 -0.29712039 0.66078103 
0.041661326 -0.29805195 0.66285276 
0.037792329 -0.29495183 0.65595824 
0.036287475 -0.31152788 0.69282252 
0.03265873 -0.31152788 0.69282252 
0.028682178 -0.30779552 0.68452197 
0.025096906 -0.30779552 0.68452197 
0.020706192 -0.29627097 0.65889192 
0.018458264 -0.3169283 0.70483279 
0.015126996 -0.32466304 0.72203451 
0.010669648 -0.30532962 0.67903793 
0.0074699069 -0.32064566 0.71310002 
0.0035726184 -0.3067092 0.68210602 
0 -0.32003966 0.7117523 
-0.0038015372 -0.32636186 0.72581261 
-0.007452053 -0.31987926 0.71139562 
-0.011074959 -0.3169283 0.70483279 
-0.015372444 -0.32993096 0.7337501 
-0.019437835 -0.33374751 0.74223787 
-0.021908889 -0.31347957 0.69716299 
-0.026827207 -0.32901639 0.73171616 
-0.032049045 -0.34392619 0.76487482 
-0.034762472 -0.33159521 0.73745131 
-0.037710276 -0.3237426 0.71998751 
-0.043287173 -0.33783659 0.75133181 
-0.043845166 -0.31367549 0.69759876 
-0.049419984 -0.32636186 0.72581261 
-0.053310893 -0.3269099 0.72703141 
-0.057937451 -0.33159521 0.73745131 
-0.062617853 -0.33598381 0.74721134 
-0.070801444 -0.35754716 0.79516715 
-0.07251785 -0.34586972 0.76919711 
-0.07913103 -0.35754716 0.79516715 
-0.08260835 -0.3545962 0.78860438 
-0.088919193 -0.36351001 0.80842823 
-0.090869188 -0.3545962 0.78860438 
-0.095790185 -0.35754716 0.79516715 
-0.099207111 -0.35487196 0.78921765 
-0.1010338 -0.34694993 0.77159947 
-0.10364469 -0.34222668 0.76109517 
-0.11400142 -0.36248216 0.80614233 
-0.12200928 -0.37408903 0.83195543 
-0.12077893 -0.35754716 0.79516715 
-0.12653141 -0.36209056 0.80527145 
-0.12829465 -0.35529324 0.79015458 
-0.13062839 -0.35045138 0.77938646 
-0.13649768 -0.35510063 0.7897262 
-0.13879266 -0.35045138 0.77938646 
-0.14777963 -0.36248216 0.80614233 
-0.15200189 -0.36248216 0.80614233 
-0.15622416 -0.36248216 0.80614233 
-0.15826206 -0.35754716 0.79516715 
-0.16121155 -0.35487196 0.78921765 
-0.17181936 -0.36876717 0.82011992 
-0.17208368 -0.36032629 0.80134779 
-0.18269347 -0.37343401 0.8304987 
-0.18704331 -0.37343401 0.8304987 
-0.19249073 -0.37557551 0.83526129 
-0.19792797 -0.37760246 0.83976912 
-0.19580083 -0.3654238 0.81268442 
-0.20995302 -0.38349915 0.8528831 
-0.20879254 -0.37343401 0.8304987 
-0.22035909 -0.38607797 0.85861826 
-0.21977589 -0.37735504 0.83921891 
-0.2184751 -0.36776626 0.81789392 
-0.22988042 -0.37952363 0.84404171 
-0.23675554 -0.38349915 0.8528831 
-0.23404627 -0.37209007 0.82750988 
-0.24191196 -0.37760246 0.83976912 
-0.24134168 -0.36998528 0.82282889 
-0.25583637 -0.38532534 0.85694444 
-0.26560739 -0.39314461 0.8743341 
-0.25274569 -0.36776626 0.81789392 
-0.26099068 -0.37343401 0.8304987 
-0.26812658 -0.37735504 0.83921891 
-0.27576891 -0.38185084 0.84921736 
-0.27668238 -0.37703452 0.83850604 
-0.28680933 -0.38472769 0.85561532 
-0.29129073 -0.38472769 0.85561532 
-0.2985754 -0.38837406 0.86372465 
-0.29143956 -0.37343401 0.8304987 
-0.30762312 -0.38837406 0.86372465 
-0.30503365 -0.37952363 0.84404171 
-0.32465509 -0.39816612 0.88550168 
-0.30883893 -0.37343401 0.8304987 
-0.32056078 -0.38222405 0.85004735 
-0.33777604 -0.39723369 0.88342804 
-0.34683511 -0.40237546 0.89486307 
-0.33693552 -0.38567871 0.85773033 
-0.33882633 -0.38273984 0.85119444 
-0.36309037 -0.40482205 0.90030414 
-0.34843269 -0.38349915 0.8528831 
-0.31705329 -0.34454447 0.76624984 
-0.36635503 -0.39314461 0.8743341 
-0.34908348 -0.36998528 0.82282889 
-0.37551391 -0.39314461 0.8743341 
-0.17809111 -0.18420622 0.4096655 
0 0 0 
0 0 0 
0 0 0 
0 0 0 
0 0 0 
0 0 0 
0 0 0 
0 0 0 
0 0 0 
0 0 0 
0 0 0 
0 0 0 
0 0 0 
0 0 0 
0 0 0 
0 0 0 
0 0 0 
0 0 0 
0 0 0 
0 0 0 
0 0 0 
0 0 0 
0 0 0 
0 0 0 
0 0 0 
0 0 0 
0 0 0 
0 0 0 
0 0 0 
0 0 0 
0 0 0 
0 0 0 
0 0 0 
0 0 0 
0 0 0 
0 0 0 
0.15537618 -0.11245121 0.24721137 
0.1981363 -0.14460324 0.31789398 
0.16309048 -0.1200349 0.26388326 
0.19783041 -0.14684804 0.32282892 
0.19022584 -0.14242049 0.31309545 
0.20722577 -0.1564973 0.34404173 
0.17187233 -0.13093691 0.28785008 
0.17853995 -0.13722014 0.3016631 
0.18778698 -0.14561577 0.32011992 
0.17798407 -0.13925767 0.30614236 
0.17638062 -0.13925767 0.30614236 
0.18951392 -0.1509995 0.33195546 
0.15803888 -0.127087 0.27938649 
0.19169164 -0.15558952 0.34204608 
0.18110104 -0.14838022 0.32619727 
0.16232753 -0.1342653 0.29516721 
0.16651285 -0.13905139 0.30568889 
0.18050699 -0.1522011 0.33459702 
0.1676169 -0.14271794 0.31374937 
0.17606084 -0.15139179 0.33281785 
0.17706552 -0.15377827 0.33806425 
0.1703088 -0.14940421 0.32844839 
0.173751 -0.15397924 0.33850607 
0.17340823 -0.15525977 0.34132117 
0.17610826 -0.15931967 0.3502464 
0.16825897 -0.15382098 0.33815816 
0.17475098 -0.16145545 0.3549417 
0.16810025 -0.15698072 0.34510452 
0.1716603 -0.16204774 0.35624379 
0.16738781 -0.15975092 0.35119447 
0.16500767 -0.15922914 0.35004741 
0.16226485 -0.15834175 0.34809655 
0.15660349 -0.1545538 0.33976918 
0.15828958 -0.15801343 0.3473748 
0.16295995 -0.16456725 0.36178261 
0.15674137 -0.16014953 0.35207075 
0.15292381 -0.15810905 0.34758502 
0.1566021 -0.16386282 0.36023402 
0.15903513 -0.16843803 0.3702921 
0.16055857 -0.17215095 0.37845454 
0.1522031 -0.16523211 0.36324424 
0.15583676 -0.17131829 0.37662405 
0.1500496 -0.16707103 0.36728692 
0.15096797 -0.17027663 0.37433407 
0.15677238 -0.17915002 0.39384121 
0.1582368 -0.18323447 0.40282041 
0.1534314 -0.18007088 0.39586562 
0.14591251 -0.17359234 0.3816233 
0.15391433 -0.18565537 0.40814248 
0.1506875 -0.18432313 0.40521371 
0.14676514 -0.18208987 0.40030414 
0.14610194 -0.18389411 0.40427056 
0.14171623 -0.1809971 0.3979018 
0.14376029 -0.18634816 0.4096655 
0.14301632 -0.18819262 0.41372037 
0.14040314 -0.18759637 0.41240954 
0.13151789 -0.17847024 0.3923468 
0.13759203 -0.18967657 0.41698265 
0.13753624 -0.19265771 0.42353636 
0.1376463 -0.19597276 0.4308241 
0.13369979 -0.19352648 0.42544624 
0.13409117 -0.1973827 0.43392372 
0.1332338 -0.19950205 0.43858287 
0.12968078 -0.19758852 0.43437618 
0.14006606 -0.21722299 0.47754037 
0.13724564 -0.21671893 0.47643223 
0.13142312 -0.21136786 0.46466851 
0.12898935 -0.21136786 0.46466851 
0.13359067 -0.22311756 0.4904989 
0.13102163 -0.22311756 0.4904989 
0.12617862 -0.21916778 0.48181579 
0.13044366 -0.23120001 0.50826728 
0.12772894 -0.23110482 0.50805801 
0.12308429 -0.2274394 0.5 
0.12046547 -0.2274394 0.5 
0.11608148 -0.22403269 0.49251071 
0.12040378 -0.23765579 0.52245957 
0.11429576 -0.23084614 0.50748932 
0.11167741 -0.23092821 0.50766975 
0.11243241 -0.23815987 0.52356774 
0.10808627 -0.23467751 0.51591218 
0.10897171 -0.24266665 0.5334754 
0.11270509 -0.25758517 0.56627208 
0.10258619 -0.24079537 0.52936161 
0.10624131 -0.25630191 0.56345099 
0.10368847 -0.25729027 0.56562376 
0.10839575 -0.27688172 0.60869336 
0.09859699 -0.25948405 0.57044655 
0.096672624 -0.2623702 0.57679141 
0.094216444 -0.26395261 0.58027017 
0.088127248 -0.25512317 0.56085962 
0.089290388 -0.26740387 0.58785737 
0.08874552 -0.27526397 0.60513693 
0.081751637 -0.2629624 0.57809329 
0.082622737 -0.27598608 0.60672444 
0.079444945 -0.27598608 0.60672444 
0.07775405 -0.28136671 0.6185531 
0.073748298 -0.2784743 0.61219448 
0.073553771 -0.29036427 0.63833326 
0.066706553 -0.2758736 0.60647714 
0.065227032 -0.28324261 0.62267709 
0.061084591 -0.27921516 0.61382318 
0.058360934 -0.28158575 0.61903465 
0.05478498 -0.27988106 0.61528713 
0.053103127 -0.28824455 0.63367325 
0.049155094 -0.28460217 0.6256659 
0.048828665 -0.30290592 0.66590464 
0.045340899 -0.30290592 0.66590464 
0.041073509 -0.29726341 0.65350026 
0.039096531 -0.30867857 0.67859519 
0.034489505 -0.29953524 0.65849459 
0.031988069 -0.30867857 0.67859519 
0.027485328 -0.29838151 0.65595824 
0.026397195 -0.32750705 0.71998751 
0.022393886 -0.32414484 0.71259606 
0.017988754 -0.31245831 0.68690449 
0.015329831 -0.33284217 0.73171616 
0.012018393 -0.34792534 0.76487482 
0.007037187 -0.3055836 0.67179126 
0.0035726184 -0.31027558 0.68210602 
0 -0.33071119 0.72703141 
-0.0037665698 -0.32711992 0.71913642 
-0.0077339686 -0.33584073 0.73830813 
-0.011299711 -0.32711992 0.71913642 
-0.014766611 -0.3206135 0.70483279 
-0.019075459 -0.33133394 0.72840047 
-0.023481697 -0.3398906 0.74721134 
-0.026189908 -0.32493529 0.71433377 
-0.031100534 -0.33762828 0.74223787 
-0.035719894 -0.34468991 0.75776207 
-0.038624965 -0.33545098 0.73745131 
-0.043657646 -0.34468991 0.75776207 
-0.047054958 -0.34055325 0.74866813 
-0.050538369 -0.33762828 0.74223787 
-0.056013122 -0.34747431 0.76388323 
-0.060620282 -0.35098425 0.77159947 
-0.062449209 -0.33897519 0.74519891 
-0.066352285 -0.33897519 0.74519891 
-0.074966237 -0.36170468 0.79516715 
-0.075005144 -0.34284544 0.75370723 
-0.083295815 -0.36170468 0.79516715 
-0.086655803 -0.35837629 0.78785008 
-0.08920794 -0.35216141 0.77418733 
-0.091757566 -0.34647745 0.76169181 
-0.10162194 -0.36773688 0.80842823 
-0.10164448 -0.35310569 0.77626324 
-0.10747436 -0.35899839 0.78921765 
-0.11001676 -0.35387999 0.77796543 
-0.11896732 -0.36900362 0.81121302 
-0.12244596 -0.36669707 0.80614233 
-0.12822227 -0.37119588 0.81603247 
-0.13171382 -0.36900362 0.81121302 
-0.13869408 -0.37641671 0.82750988 
-0.13649768 -0.35922971 0.7897262 
-0.14063397 -0.35922971 0.7897262 
-0.14576769 -0.36170468 0.79516715 
-0.15421771 -0.37204263 0.81789392 
-0.15642476 -0.36716792 0.80717748 
-0.15949219 -0.36451614 0.80134779 
-0.16600505 -0.36967292 0.81268442 
-0.17582071 -0.38174289 0.83921891 
-0.1843821 -0.39056724 0.85861826 
-0.18982089 -0.39251444 0.86289895 
-0.19111754 -0.3860051 0.84858888 
-0.19023186 -0.37548405 0.82545954 
-0.19154429 -0.36967292 0.81268442 
-0.20335576 -0.38393667 0.84404171 
-0.20658933 -0.38174289 0.83921891 
-0.21334052 -0.3860051 0.84858888 
-0.21314237 -0.37777627 0.8304987 
-0.21843411 -0.37941226 0.8340953 
-0.23741552 -0.40429637 0.8888002 
-0.23111889 -0.3860051 0.84858888 
-0.23788294 -0.38980585 0.85694444 
-0.23623861 -0.37994266 0.83526129 
-0.22906348 -0.36170468 0.79516715 
-0.24211326 -0.37548405 0.82545954 
-0.24643672 -0.37548405 0.82545954 
-0.25778645 -0.3860051 0.84858888 
-0.26223105 -0.3860051 0.84858888 
-0.26099068 -0.37777627 0.8304987 
-0.25602692 -0.36451614 0.80134779 
-0.27882171 -0.39056724 0.85861826 
-0.27522698 -0.37941226 0.8340953 
-0.28107417 -0.38141862 0.83850604 
-0.28546596 -0.38141862 0.83850604 
-0.30778965 -0.40501493 0.89037985 
-0.30099571 -0.39016336 0.85773033 
-0.30061287 -0.38393667 0.84404171 
-0.30761865 -0.38719031 0.85119444 
-0.31447315 -0.39016336 0.85773033 
-0.32929301 -0.40279594 0.88550168 
-0.3374612 -0.40705425 0.89486307 
-0.33429897 -0.39771605 0.8743341 
-0.32188848 -0.37777627 0.8304987 
-0.31893882 -0.36932358 0.81191647 
-0.32753515 -0.37428743 0.82282889 
-0.34715483 -0.39155561 0.86079103 
-0.32976034 -0.36716792 0.80717748 
-0.34046414 -0.37428743 0.82282889 
-0.37103435 -0.40279594 0.88550168 
-0.35808298 -0.38393667 0.84404171 
-0.30271554 -0.3206135 0.70483279 
-0.38009334 -0.39771605 0.8743341 
0 0 0 
0 0 0 
0 0 0 
0 0 0 
0 0 0 
0 0 0 
0 0 0 
0 0 0 
0 0 0 
0 0 0 
0 0 0 
0 0 0 
0 0 0 
0 0 0 
0 0 0 
0 0 0 
0 0 0 
0 0 0 
0 0 0 
0 0 0 
0 0 0 
0 0 0 
0 0 0 
0 0 0 
0 0 0 
0 0 0 
0 0 0 
0 0 0 
0 0 0 
0 0 0 
0 0 0 
0 0 0 
0 0 0 
0 0 0 
0 0 0 
0 0 0 
0.18551718 -0.13580859 0.29516721 
0.17634156 -0.13017634 0.28292605 
0.14971276 -0.11145541 0.24223787 
0.19915287 -0.14952888 0.32498696 
0.17356074 -0.13143708 0.28566614 
0.18303975 -0.13982084 0.30388749 
0.17130499 -0.13200474 0.28689989 
0.18399678 -0.14303954 0.31088302 
0.18446259 -0.14468203 0.31445283 
0.18543307 -0.14675353 0.31895503 
0.17970733 -0.14351505 0.3119165 
0.18093216 -0.14581883 0.31692353 
0.1729172 -0.14064969 0.30568889 
0.17404954 -0.14289382 0.31056631 
0.1754577 -0.14540887 0.31603253 
0.15933521 -0.13330512 0.28972617 
0.16628546 -0.14045762 0.30527145 
0.16214602 -0.13829085 0.30056217 
0.18484032 -0.15919186 0.34598857 
0.1728491 -0.15033846 0.32674652 
0.15887226 -0.13956369 0.30332857 
0.17463477 -0.1549601 0.33679122 
0.1657041 -0.14853594 0.32282892 
0.17340823 -0.15704437 0.34132117 
0.17578404 -0.16085425 0.3496016 
0.16210143 -0.14989516 0.32578304 
0.1670101 -0.15607712 0.33921894 
0.16175237 -0.152789 0.33207253 
0.1657806 -0.15829611 0.34404173 
0.16591127 -0.16016176 0.34809655 
0.16314472 -0.15924099 0.34609535 
0.16460712 -0.16247366 0.35312125 
0.16186953 -0.16158713 0.35119447 
0.16021822 -0.16177709 0.35160732 
0.16438444 -0.1679139 0.36494508 
0.16085273 -0.16623937 0.36130565 
0.15966137 -0.16697247 0.36289901 
0.15523119 -0.16429535 0.35708052 
0.15640377 -0.16755511 0.36416531 
0.15331797 -0.1662771 0.36138764 
0.15491691 -0.17011131 0.36972097 
0.15390633 -0.17114088 0.37195861 
0.15590651 -0.17558767 0.3816233 
0.14710741 -0.16782945 0.36476156 
0.15717915 -0.1816794 0.3948631 
0.15212892 -0.17818654 0.3872717 
0.15304284 -0.1816794 0.3948631 
0.14807215 -0.17818654 0.3872717 
0.15120019 -0.18447784 0.40094525 
0.15469271 -0.19139732 0.41598412 
0.1425474 -0.17888981 0.3888002 
0.14557786 -0.18534061 0.40282041 
0.14735015 -0.19035576 0.41372037 
0.14279108 -0.18721931 0.40690359 
0.1353834 -0.18019627 0.39163968 
0.14284761 -0.1930563 0.41958973 
0.13835418 -0.18990512 0.41274095 
0.14049459 -0.19590403 0.42577901 
0.13619593 -0.19297311 0.41940892 
0.13947538 -0.20085935 0.43654895 
0.13275276 -0.19436437 0.42243269 
0.13706894 -0.20408516 0.44355991 
0.14246486 -0.21577649 0.46896994 
0.13571978 -0.20916672 0.45460424 
0.13708635 -0.21504559 0.46738139 
0.13149337 -0.21002236 0.45646387 
0.13194807 -0.21465135 0.46652454 
0.12870973 -0.21333392 0.46366122 
0.12818152 -0.21654415 0.47063836 
0.128408 -0.2211802 0.48071438 
0.12168808 -0.21379738 0.46466851 
0.13050024 -0.23395893 0.50848776 
0.12772894 -0.23376119 0.50805801 
0.12119623 -0.22652473 0.49233022 
0.12420573 -0.23719645 0.51552421 
0.12159705 -0.23737496 0.51591218 
0.11898889 -0.2375626 0.51631999 
0.11437903 -0.23366965 0.50785905 
0.10657518 -0.22291082 0.48447573 
0.11437601 -0.2450617 0.53261858 
0.10475259 -0.23005365 0.5 
0.1095566 -0.24677338 0.53633875 
0.10502046 -0.24278098 0.52766168 
0.10510879 -0.24955235 0.5423786 
0.10894534 -0.26584622 0.57779181 
0.099980332 -0.25094056 0.54539573 
0.10406692 -0.26887977 0.58438492 
0.098992802 -0.26352027 0.57273656 
0.095993012 -0.26352027 0.57273656 
0.094590046 -0.26804525 0.58257115 
0.088977702 -0.26054591 0.56627208 
0.088137962 -0.26698655 0.58027017 
0.089177743 -0.27978396 0.60808414 
0.085358053 -0.27771866 0.60359544 
0.083075121 -0.28068683 0.61004645 
0.079444945 -0.27915835 0.60672444 
0.074885041 -0.27409944 0.59572941 
0.074930392 -0.28619003 0.62200719 
0.069728628 -0.27842793 0.60513693 
0.064400554 -0.26939818 0.58551162 
0.06554012 -0.28787345 0.6256659 
0.059678704 -0.27592441 0.5996958 
0.058986112 -0.28787345 0.6256659 
0.056368198 -0.29127929 0.63306814 
0.051496223 -0.28273514 0.61449826 
0.052316427 -0.30638757 0.66590464 
0.048505243 -0.30435818 0.66149396 
0.045585789 -0.30804241 0.66950125 
0.042650763 -0.31222659 0.67859519 
0.038679529 -0.30889642 0.67135733 
0.034085579 -0.2994298 0.65078259 
0.03192094 -0.31157133 0.67717105 
0.029211849 -0.32076979 0.69716299 
0.024703901 -0.31002152 0.67380267 
0.021623557 -0.31659222 0.68808347 
0.017269433 -0.30341178 0.659437 
0.015153098 -0.33278659 0.72328037 
0.010793254 -0.31604975 0.68690449 
0.0073833056 -0.32429871 0.70483279 
0.0037323139 -0.32787064 0.71259606 
0 -0.32766536 0.71214986 
-0.0037278945 -0.32748243 0.7117523 
-0.0075331395 -0.33087993 0.71913642 
-0.011423764 -0.33451244 0.72703141 
-0.01508411 -0.3312715 0.71998751 
-0.019754751 -0.34707707 0.7543394 
-0.021339295 -0.31243029 0.67903793 
-0.026901778 -0.33760378 0.7337501 
-0.029963426 -0.32902271 0.71509993 
-0.037173759 -0.36284262 0.78860438 
-0.040413521 -0.35501856 0.77159947 
-0.044454873 -0.35501856 0.77159947 
-0.047836017 -0.35018545 0.76109517 
-0.050078876 -0.33840409 0.73548949 
-0.05657893 -0.35501856 0.77159947 
-0.058941282 -0.34518558 0.75022846 
-0.062870696 -0.34518558 0.75022846 
-0.070149936 -0.36249557 0.78785008 
-0.073537491 -0.3588894 0.78001243 
-0.076253325 -0.35255715 0.76624984 
-0.082529336 -0.36249557 0.78785008 
-0.084279984 -0.35255715 0.76624984 
-0.08920794 -0.35620925 0.77418733 
-0.094999596 -0.36284262 0.78860438 
-0.10609867 -0.38834974 0.84404171 
-0.10251691 -0.36022997 0.78292602 
-0.10571025 -0.35716438 0.77626324 
-0.11414781 -0.37138826 0.80717748 
-0.11255746 -0.3531349 0.76750553 
-0.12163464 -0.36845431 0.80080086 
-0.13195199 -0.38638389 0.83976912 
-0.12822509 -0.3633588 0.7897262 
-0.1370824 -0.37631896 0.81789392 
-0.14514719 -0.38638389 0.83976912 
-0.14355734 -0.37091196 0.80614233 
-0.14352368 -0.36022997 0.78292602 
-0.14881067 -0.36312479 0.78921765 
-0.15172502 -0.36022997 0.78292602 
-0.16600992 -0.38377333 0.8340953 
-0.157122 -0.35391319 0.76919711 
-0.17360491 -0.38126451 0.82864261 
-0.17911597 -0.38377333 0.8340953 
-0.1923364 -0.40228748 0.8743341 
-0.18470581 -0.37734315 0.82011992 
-0.19340278 -0.38613075 0.83921891 
-0.20237058 -0.39505652 0.85861826 
-0.20219381 -0.38613075 0.83921891 
-0.19743024 -0.36901173 0.80201232 
-0.2068643 -0.37858957 0.82282889 
-0.2090243 -0.37473568 0.81445283 
-0.21749222 -0.38211852 0.8304987 
-0.22935334 -0.39505652 0.85861826 
-0.22988042 -0.38834974 0.84404171 
-0.23430121 -0.38834974 0.84404171 
-0.23623861 -0.3843098 0.83526129 
-0.2497367 -0.39888164 0.8669318 
-0.23711786 -0.37196374 0.80842823 
-0.25761408 -0.39702609 0.86289895 
-0.25494 -0.38613075 0.83921891 
-0.26533031 -0.39505652 0.85861826 
-0.27600887 -0.4041068 0.87828815 
-0.25195545 -0.36284262 0.78860438 
-0.28255606 -0.40034768 0.87011808 
-0.28711343 -0.40034768 0.87011808 
-0.28466469 -0.3907311 0.84921736 
-0.28127548 -0.38013938 0.82619727 
-0.2985754 -0.39740601 0.86372465 
-0.30887181 -0.40497467 0.8801744 
-0.3031604 -0.39164078 0.85119444 
-0.31598121 -0.40228748 0.8743341 
-0.32270193 -0.40497467 0.8801744 
-0.3138752 -0.38834974 0.84404171 
-0.33192196 -0.40497467 0.8801744 
-0.33856887 -0.40742579 0.88550168 
-0.33690447 -0.39994422 0.86924118 
-0.34784472 -0.40742579 0.88550168 
-0.3359791 -0.38834974 0.84404171 
-0.34039986 -0.38834974 0.84404171 
-0.35166335 -0.39605623 0.86079103 
-0.34924144 -0.38834974 0.84404171 
-0.33938566 -0.37267295 0.80996966 
-0.40179279 -0.43575409 0.9470706 
-0.36250377 -0.38834974 0.84404171 
-0.30640718 -0.32429871 0.70483279 
-0.36201251 -0.37858957 0.82282889 
-0.36632219 -0.37858957 0.82282889 
-0.40307865 -0.41173303 0.89486307 
-0.25993752 -0.26246661 0.57044655 
0 0 0 
0 0 0 
0 0 0 
0 0 0 
0 0 0 
0 0 0 
0 0 0 
0 0 0 
0 0 0 
0 0 0 
0 0 0 
0 0 0 
0 0 0 
0 0 0 
0 0 0 
0 0 0 
0 0 0 
0 0 0 
0 0 0 
0 0 0 
0 0 0 
0 0 0 
0 0 0 
0 0 0 
0 0 0 
0 0 0 
0 0 0 
0 0 0 
0 0 0 
0 0 0 
0 0 0 
0 0 0 
0.18551718 -0.13735187 0.29516721 
0.20823425 -0.15546653 0.33409536 
0.19784699 -0.14896326 0.32011992 
0.20821145 -0.15810676 0.33976918 
0.17356074 -0.13293068 0.28566614 
0.20722577 -0.16009493 0.34404173 
0.20334667 -0.15847614 0.34056297 
0.16074672 -0.12638496 0.27159947 
0.17764856 -0.14092089 0.30283698 
0.15569423 -0.12461813 0.2678026 
0.15916611 -0.12855519 0.2762633 
0.1717277 -0.1399734 0.30080086 
0.17927223 -0.14747585 0.31692353 
0.15619452 -0.12969217 0.27870661 
0.17923097 -0.15022385 0.32282892 
0.17429243 -0.14747585 0.31692353 
0.17032342 -0.14550327 0.31268445 
0.17668365 -0.15240207 0.32750988 
0.16883665 -0.14706124 0.31603253 
0.17412201 -0.15316656 0.32915276 
0.18290712 -0.16250335 0.34921739 
0.17923006 -0.16084492 0.34565344 
0.16615859 -0.15063587 0.32371435 
0.16896339 -0.15475781 0.33257234 
0.17228495 -0.15944386 0.34264258 
0.17049031 -0.15944386 0.34264258 
0.16938454 -0.16009493 0.34404173 
0.16523339 -0.15785071 0.33921894 
0.16632354 -0.16061926 0.3451685 
0.17079023 -0.16674517 0.35833302 
0.15971291 -0.15766279 0.33881509 
0.161332 -0.16105056 0.34609535 
0.15810326 -0.15962094 0.34302312 
0.15820451 -0.16155906 0.34718812 
0.1589513 -0.16420914 0.3528831 
0.15575749 -0.16280273 0.34986076 
0.15349481 -0.16234767 0.34888285 
0.15734109 -0.16842082 0.36193395 
0.15445562 -0.16734838 0.3596293 
0.16071917 -0.1762846 0.37883309 
0.15198268 -0.16878575 0.36271819 
0.15997384 -0.17990927 0.38662249 
0.15794885 -0.17990927 0.38662249 
0.14668925 -0.16925412 0.36372471 
0.15006766 -0.17543054 0.37699774 
0.14815328 -0.17550184 0.37715095 
0.15259339 -0.18320431 0.39370346 
0.15277103 -0.18593015 0.39956126 
0.14514916 -0.17910747 0.38489941 
0.13827585 -0.1730293 0.37183753 
0.14303622 -0.18154305 0.39013344 
0.1382903 -0.17806326 0.38265541 
0.14640212 -0.19128026 0.41105857 
0.13973545 -0.18529491 0.39819613 
0.13708296 -0.18453181 0.39655623 
0.13500595 -0.18453181 0.39655623 
0.13732326 -0.19063202 0.4096655 
0.13687621 -0.19302747 0.41481328 
0.13767679 -0.19728804 0.42396918 
0.14247891 -0.20751642 0.44594982 
0.13546798 -0.20059361 0.4310728 
0.13063669 -0.19671834 0.4227449 
0.12784174 -0.19582872 0.42083314 
0.13204166 -0.20581062 0.44228411 
0.13657017 -0.21667038 0.46562156 
0.13879648 -0.22420613 0.48181579 
0.13596141 -0.22369361 0.48071438 
0.14160204 -0.23736973 0.51010418 
0.14176956 -0.24222076 0.52052897 
0.13355955 -0.23266789 0.5 
0.13094074 -0.23266789 0.5 
0.13273664 -0.24067247 0.51720172 
0.12980606 -0.24026217 0.51631999 
0.12308429 -0.23266789 0.5 
0.12439746 -0.24026217 0.51631999 
0.12384533 -0.24451125 0.52545118 
0.11522785 -0.23266789 0.5 
0.11260903 -0.23266789 0.5 
0.10999022 -0.23266789 0.5 
0.1073714 -0.23266789 0.5 
0.10826164 -0.24046193 0.51674926 
0.11127647 -0.2534956 0.54475844 
0.10360084 -0.24222076 0.52052897 
0.10114866 -0.24287908 0.52194369 
0.10133024 -0.25007385 0.53740513 
0.10306356 -0.2616187 0.56221485 
0.10158478 -0.2654492 0.57044655 
0.09816549 -0.26428747 0.56795001 
0.094095826 -0.26124746 0.5614171 
0.095850535 -0.27470374 0.59033442 
0.088977702 -0.26350665 0.56627208 
0.088857472 -0.27222478 0.58500719 
0.08617226 -0.27342683 0.5875904 
0.086769976 -0.28552055 0.61357963 
0.087962173 -0.300576 0.64593357 
0.077681206 -0.27606264 0.59325469 
0.079654701 -0.29487085 0.63367325 
0.076335751 -0.29487085 0.63367325 
0.072094135 -0.29114473 0.6256659 
0.069185667 -0.2927039 0.62901652 
0.065183505 -0.28956056 0.62226152 
0.060922511 -0.28487599 0.61219448 
0.059986331 -0.29608163 0.63627523 
0.053481087 -0.27950075 0.60064316 
0.052432097 -0.29114473 0.6256659 
0.050497476 -0.29909563 0.64275229 
0.05059772 -0.32109579 0.69003028 
0.04486341 -0.30660599 0.65889192 
0.040397983 -0.29909563 0.64275229 
0.037792329 -0.30524084 0.65595824 
0.036141228 -0.32109579 0.69003028 
0.032863334 -0.32441488 0.69716299 
0.030208392 -0.33548209 0.72094625 
0.025184259 -0.31964123 0.68690449 
0.022149919 -0.32798392 0.70483279 
0.017988754 -0.31964123 0.68690449 
0.014951842 -0.33209813 0.71367413 
0.011074959 -0.32798392 0.70483279 
0.0072852424 -0.32362774 0.69547141 
0.0038997808 -0.34647501 0.74456984 
0 -0.3313888 0.71214986 
-0.003807921 -0.33831373 0.72703141 
-0.0074646277 -0.33159643 0.71259606 
-0.011699343 -0.34647501 0.74456984 
-0.014595625 -0.32418612 0.69667137 
-0.018674767 -0.33183095 0.71310002 
-0.024172617 -0.35793495 0.76919711 
-0.026988545 -0.34254146 0.73611671 
-0.031751014 -0.35261381 0.75776207 
-0.034588002 -0.34144017 0.7337501 
-0.039476391 -0.35072693 0.75370723 
-0.044067439 -0.35592362 0.76487482 
-0.046963394 -0.34770417 0.74721134 
-0.050877009 -0.34770417 0.74721134 
-0.054790623 -0.34770417 0.74721134 
-0.059533156 -0.35261381 0.75776207 
-0.063162223 -0.35072693 0.75370723 
-0.067470908 -0.35261381 0.75776207 
-0.072239988 -0.35656348 0.76624984 
-0.079894289 -0.37358877 0.80283695 
-0.083295815 -0.37001973 0.79516715 
-0.083872892 -0.35484117 0.76254863 
-0.09078227 -0.36661485 0.78785008 
-0.098374292 -0.38000163 0.81661814 
-0.099954985 -0.37001973 0.79516715 
-0.1021354 -0.3629677 0.78001243 
-0.10921672 -0.37320504 0.80201232 
-0.10877678 -0.35793495 0.76919711 
-0.12027356 -0.38163114 0.82011992 
-0.12614548 -0.38646075 0.8304987 
-0.12970354 -0.38411587 0.82545954 
-0.13402699 -0.38411587 0.82545954 
-0.14074878 -0.39077464 0.83976912 
-0.14046581 -0.37817115 0.81268442 
-0.1405434 -0.36725122 0.78921765 
-0.15290388 -0.38813439 0.8340953 
-0.14993247 -0.37001973 0.79516715 
-0.15783468 -0.37899405 0.81445283 
-0.15680574 -0.36661485 0.78785008 
-0.16382509 -0.37320504 0.80201232 
-0.1723869 -0.38289171 0.82282889 
-0.17075643 -0.37001973 0.79516715 
-0.17331161 -0.36661485 0.78785008 
-0.18785332 -0.38813439 0.8340953 
-0.18962561 -0.38289171 0.82282889 
-0.1977983 -0.39051861 0.83921891 
-0.19964565 -0.38559705 0.82864261 
-0.19900963 -0.37619057 0.80842823 
-0.20163089 -0.37320504 0.80201232 
-0.20747812 -0.37619057 0.80842823 
-0.22366416 -0.39742765 0.85406637 
-0.22049601 -0.38411587 0.82545954 
-0.22018085 -0.37619057 0.80842823 
-0.22263409 -0.37320504 0.80201232 
-0.23489161 -0.38646075 0.8304987 
-0.25186908 -0.40685895 0.8743341 
-0.24614899 -0.39051861 0.83921891 
